ply
format ascii 1.0
comment VCGLIB generated
element vertex 738
property float x
property float y
property float z
property float nx
property float ny
property float nz
property int flags
element face 0
property list uchar int vertex_indices
property int flags
end_header
-0.2436655 0.4120009 -0.1828284 -1.734633e-05 1 -1.752194e-05 0 
-0.3241995 0.4119954 -0.2902189 -2.527121e-05 1 -2.552705e-05 0 
-0.2085757 0.4120019 -0.1829756 -1.588133e-05 1 -1.60421e-05 0 
-0.0488323 0.4120024 -0.3226929 -1.510097e-05 1 -1.525385e-05 0 
-0.2535368 0.4119984 -0.2583823 -2.096011e-05 1 -2.11723e-05 0 
-0.330161 0.4119979 -0.1989261 -2.165469e-05 1 -2.187391e-05 0 
-0.3055446 0.4119982 -0.2146695 -2.128935e-05 1 -2.150487e-05 0 
-0.3355575 0.412002 -0.05380894 -1.573489e-05 1 -1.589418e-05 0 
-0.1650553 0.4120014 -0.2425003 -1.657761e-05 1 -1.674544e-05 0 
-0.2210523 0.4120007 -0.2121341 -1.763937e-05 1 -1.781794e-05 0 
-0.3341882 0.4119973 -0.2154085 -2.252162e-05 1 -2.274961e-05 0 
-0.3001368 0.4120027 -0.06387574 -1.467613e-05 1 -1.48247e-05 0 
-0.2693549 0.4119971 -0.2850798 -2.275404e-05 1 -2.298439e-05 0 
-0.3081037 0.4120016 -0.09275513 -1.623327e-05 1 -1.639761e-05 0 
-0.3444223 0.4120013 -0.06907407 -1.675309e-05 1 -1.692269e-05 0 
-0.3050879 0.4119998 -0.1574236 -1.884569e-05 1 -1.903648e-05 0 
-0.3217471 0.4119986 -0.1827906 -2.061854e-05 1 -2.082727e-05 0 
-0.2447963 0.4119977 -0.2901486 -2.193902e-05 1 -2.216112e-05 0 
-0.1689409 0.4120016 -0.2304681 -1.623094e-05 1 -1.639525e-05 0 
-0.1947581 0.4120024 -0.1777772 -1.508182e-05 1 -1.52345e-05 0 
-0.1960515 0.4119996 -0.2753857 -1.927001e-05 1 -1.946509e-05 0 
-0.3269975 0.4119962 -0.2628862 -2.423092e-05 1 -2.447622e-05 0 
-0.2426682 0.4119989 -0.2524663 -2.025385e-05 1 -2.045889e-05 0 
-0.1465998 0.4120019 -0.2433945 -1.584169e-05 1 -1.600206e-05 0 
-0.2468096 0.4119987 -0.2548005 -2.052635e-05 1 -2.073415e-05 0 
-0.2533759 0.4119987 -0.2492796 -2.056785e-05 1 -2.077606e-05 0 
-0.1344198 0.412002 -0.2527093 -1.572551e-05 1 -1.588471e-05 0 
-0.1427277 0.4119996 -0.324605 -1.91188e-05 1 -1.931235e-05 0 
-0.0668048 0.4120028 -0.290959 -1.451052e-05 1 -1.465741e-05 0 
-0.3159813 0.4120022 -0.06427158 -1.535722e-05 1 -1.551269e-05 0 
-0.3013808 0.4119966 -0.2716462 -2.352787e-05 1 -2.376606e-05 0 
-0.2297415 0.4119985 -0.2761579 -2.071526e-05 1 -2.092497e-05 0 
-0.3003797 0.412001 -0.1209717 -1.710446e-05 1 -1.727762e-05 0 
-0.1573244 0.4120007 -0.2728896 -1.754053e-05 1 -1.771811e-05 0 
-0.2729955 0.4119986 -0.2325638 -2.06825e-05 1 -2.089188e-05 0 
-0.2675181 0.4119991 -0.2198533 -1.991452e-05 1 -2.011612e-05 0 
-0.1979038 0.4120026 -0.1694883 -1.486265e-05 1 -1.501312e-05 0 
-0.3326966 0.4120005 -0.1072282 -1.787738e-05 1 -1.805836e-05 0 
-0.1147522 0.412 -0.3386273 -1.853973e-05 1 -1.872741e-05 0 
-0.3208801 0.4120023 -0.05552535 -1.519219e-05 1 -1.534599e-05 0 
-0.2728059 0.4119991 -0.2133944 -1.986267e-05 1 -2.006375e-05 0 
-0.316923 0.4120009 -0.1079076 -1.72448e-05 1 -1.741937e-05 0 
-0.301021 0.4119946 -0.3412341 -2.646e-05 1 -2.672787e-05 0 
-0.2820998 0.4119976 -0.2552495 -2.202502e-05 1 -2.224799e-05 0 
-0.2448977 0.4119978 -0.2883692 -2.186791e-05 1 -2.208929e-05 0 
-0.260418 0.4120025 -0.1089381 -1.49193e-05 1 -1.507033e-05 0 
-0.3324509 0.4120015 -0.07306292 -1.642009e-05 1 -1.658632e-05 0 
-0.318727 0.4119962 -0.2669977 -2.405828e-05 1 -2.430184e-05 0 
-0.3174604 0.4120007 -0.1138844 -1.752046e-05 1 -1.769783e-05 0 
-0.2439605 0.4119993 -0.2371265 -1.965836e-05 1 -1.985737e-05 0 
-0.2223926 0.4120007 -0.2096314 -1.758958e-05 1 -1.776764e-05 0 
-0.3202168 0.4119976 -0.2206728 -2.215878e-05 1 -2.23831e-05 0 
-0.3350488 0.4119999 -0.1265367 -1.879376e-05 1 -1.898402e-05 0 
-0.2233962 0.411997 -0.3351922 -2.294947e-05 1 -2.318179e-05 0 
-0.02356818 0.4120026 -0.3417335 -1.484812e-05 1 -1.499843e-05 0 
-0.2063529 0.4120003 -0.2388696 -1.815537e-05 1 -1.833917e-05 0 
-0.2488627 0.4119975 -0.2934687 -2.225013e-05 1 -2.247538e-05 0 
-0.1507613 0.4120003 -0.2945455 -1.818254e-05 1 -1.836661e-05 0 
-0.3304555 0.4119982 -0.1866619 -2.114762e-05 1 -2.136171e-05 0 
-0.3247045 0.4120002 -0.1247193 -1.828308e-05 1 -1.846816e-05 0 
-0.3351674 0.4119998 -0.1303818 -1.896158e-05 1 -1.915354e-05 0 
-0.3321595 0.4119978 -0.2018205 -2.186107e-05 1 -2.208238e-05 0 
-0.2518394 0.411996 -0.3410032 -2.438814e-05 1 -2.463503e-05 0 
-0.2036757 0.412002 -0.1839566 -1.571742e-05 1 -1.587654e-05 0 
-0.1971975 0.4120019 -0.1935287 -1.585121e-05 1 -1.601168e-05 0 
-0.3003586 0.4120003 -0.1445802 -1.810346e-05 1 -1.828673e-05 0 
-0.1229707 0.4120009 -0.3002092 -1.725721e-05 1 -1.743191e-05 0 
-0.3383827 0.4120011 -0.08130179 -1.701774e-05 1 -1.719002e-05 0 
-0.2858395 0.4119984 -0.2260549 -2.094535e-05 1 -2.115739e-05 0 
-0.3089794 0.4120021 -0.07398616 -1.547508e-05 1 -1.563174e-05 0 
-0.04724684 0.4120024 -0.3263346 -1.518873e-05 1 -1.53425e-05 0 
-0.1006562 0.4120006 -0.3321627 -1.767492e-05 1 -1.785385e-05 0 
-0.2807734 0.4119983 -0.233917 -2.106592e-05 1 -2.127918e-05 0 
-0.3060135 0.4119965 -0.2707936 -2.3686e-05 1 -2.392579e-05 0 
-0.293031 0.4120011 -0.1249031 -1.696285e-05 1 -1.713458e-05 0 
-0.2864926 0.412001 -0.1359585 -1.715693e-05 1 -1.733062e-05 0 
-0.3305155 0.4119946 -0.3122473 -2.646898e-05 1 -2.673694e-05 0 
-0.2315896 0.4120009 -0.1930511 -1.727298e-05 1 -1.744784e-05 0 
-0.2362408 0.4119964 -0.3454811 -2.392377e-05 1 -2.416596e-05 0 
-0.2515488 0.4120022 -0.130237 -1.544949e-05 1 -1.560589e-05 0 
-0.2816761 0.4119987 -0.2199567 -2.051252e-05 1 -2.072017e-05 0 
-0.2896574 0.4120007 -0.1424997 -1.756666e-05 1 -1.77445e-05 0 
-0.07835254 0.4120025 -0.2889906 -1.491132e-05 1 -1.506228e-05 0 
-0.2906617 0.412002 -0.09634008 -1.56538e-05 1 -1.581227e-05 0 
-0.2854988 0.4119953 -0.3317982 -2.540955e-05 1 -2.566679e-05 0 
-0.2960692 0.4120013 -0.1154951 -1.669179e-05 1 -1.686076e-05 0 
-0.149905 0.4119989 -0.3434641 -2.021846e-05 1 -2.042314e-05 0 
-0.339954 0.4120018 -0.05667005 -1.60404e-05 1 -1.620279e-05 0 
-0.2385031 0.4120028 -0.1208936 -1.45068e-05 1 -1.465365e-05 0 
-0.28144 0.4120005 -0.1579343 -1.787581e-05 1 -1.805678e-05 0 
-0.2934096 0.4120004 -0.1475742 -1.79389e-05 1 -1.812051e-05 0 
-0.3207208 0.4120001 -0.1342914 -1.852145e-05 1 -1.870895e-05 0 
-0.1469852 0.4120006 -0.2877995 -1.773851e-05 1 -1.791808e-05 0 
-0.2198625 0.4120008 -0.2072157 -1.738119e-05 1 -1.755714e-05 0 
-0.09548631 0.4120023 -0.279303 -1.521941e-05 1 -1.537349e-05 0 
-0.3182299 0.4119992 -0.1676898 -1.983152e-05 1 -2.003228e-05 0 
-0.2736726 0.4119957 -0.3302746 -2.484918e-05 1 -2.510074e-05 0 
-0.3292782 0.412001 -0.09516249 -1.722304e-05 1 -1.739739e-05 0 
-0.309774 0.4119986 -0.1961504 -2.068235e-05 1 -2.089173e-05 0 
-0.2738529 0.4120003 -0.1716236 -1.813748e-05 1 -1.832109e-05 0 
-0.06144717 0.412002 -0.3230755 -1.564609e-05 1 -1.580449e-05 0 
-0.2170471 0.4120018 -0.1777085 -1.601344e-05 1 -1.617555e-05 0 
-0.3089391 0.4120017 -0.0904267 -1.616969e-05 1 -1.633338e-05 0 
-0.1055013 0.4120009 -0.319378 -1.73366e-05 1 -1.75121e-05 0 
-0.1650673 0.412002 -0.2215508 -1.569086e-05 1 -1.584971e-05 0 
-0.11137 0.4120014 -0.2945276 -1.653018e-05 1 -1.669752e-05 0 
-0.3465775 0.4119957 -0.2588585 -2.488129e-05 1 -2.513317e-05 0 
-0.3409096 0.4119962 -0.2479024 -2.417962e-05 1 -2.442441e-05 0 
-0.1251055 0.4120023 -0.2498644 -1.521449e-05 1 -1.536851e-05 0 
-0.3290576 0.4119943 -0.3236109 -2.688913e-05 1 -2.716134e-05 0 
-0.2806822 0.4119966 -0.2932025 -2.357299e-05 1 -2.381163e-05 0 
-0.2317504 0.4120007 -0.1995867 -1.755651e-05 1 -1.773424e-05 0 
-0.230307 0.4119965 -0.3442688 -2.362364e-05 1 -2.386279e-05 0 
-0.06331824 0.4120015 -0.3392769 -1.641071e-05 1 -1.657685e-05 0 
-0.1384106 0.4120025 -0.2310199 -1.497424e-05 1 -1.512583e-05 0 
-0.2277722 0.412001 -0.1936076 -1.713648e-05 1 -1.730997e-05 0 
-0.2220479 0.4119982 -0.295625 -2.121716e-05 1 -2.143196e-05 0 
-0.2371335 0.412002 -0.150921 -1.572111e-05 1 -1.588026e-05 0 
-0.2031678 0.4119983 -0.3101064 -2.103888e-05 1 -2.125187e-05 0 
-0.3247283 0.4119977 -0.2097253 -2.188428e-05 1 -2.210583e-05 0 
-0.2469934 0.4119983 -0.2677921 -2.108429e-05 1 -2.129773e-05 0 
-0.2174596 0.4119994 -0.2597626 -1.950593e-05 1 -1.970339e-05 0 
-0.2854416 0.4119977 -0.2486945 -2.188751e-05 1 -2.210909e-05 0 
-0.295613 0.4119947 -0.344339 -2.636476e-05 1 -2.663166e-05 0 
-0.1546167 0.4119994 -0.3210336 -1.946603e-05 1 -1.966309e-05 0 
-0.2904216 0.4119953 -0.3290831 -2.550097e-05 1 -2.575912e-05 0 
-0.03845069 0.4120021 -0.3450272 -1.561161e-05 1 -1.576965e-05 0 
-0.2406882 0.4119981 -0.2802062 -2.134569e-05 1 -2.156178e-05 0 
-0.3382276 0.4119952 -0.2852536 -2.564909e-05 1 -2.590875e-05 0 
-0.3285688 0.4119941 -0.331587 -2.720645e-05 1 -2.748187e-05 0 
-0.3467199 0.4119934 -0.3361976 -2.816276e-05 1 -2.844786e-05 0 
-0.3129253 0.4120021 -0.07083859 -1.550722e-05 1 -1.566421e-05 0 
-0.315237 0.4120016 -0.08849075 -1.635176e-05 1 -1.651729e-05 0 
-0.0946484 0.4120029 -0.2617092 -1.443914e-05 1 -1.458532e-05 0 
-0.2553013 0.4120021 -0.1282938 -1.552453e-05 1 -1.568169e-05 0 
-0.2162732 0.4119989 -0.2779865 -2.022801e-05 1 -2.043279e-05 0 
-0.3401672 0.412001 -0.08058521 -1.706221e-05 1 -1.723494e-05 0 
-0.1448515 0.4120014 -0.2631288 -1.660418e-05 1 -1.677227e-05 0 
-0.3419543 0.412 -0.1159044 -1.863299e-05 1 -1.882162e-05 0 
-0.3009575 0.4119972 -0.2521184 -2.268307e-05 1 -2.291271e-05 0 
-0.2522079 0.4120019 -0.138662 -1.583395e-05 1 -1.599424e-05 0 
-0.3308501 0.4119972 -0.2229077 -2.269926e-05 1 -2.292906e-05 0 
-0.1837495 0.4120022 -0.1961162 -1.539695e-05 1 -1.555282e-05 0 
-0.3242735 0.4119983 -0.1927193 -2.114497e-05 1 -2.135903e-05 0 
-0.3320044 0.4119979 -0.1979721 -2.169158e-05 1 -2.191118e-05 0 
-0.09677117 0.4120029 -0.2594754 -1.443354e-05 1 -1.457966e-05 0 
-0.3222265 0.4119965 -0.255686 -2.372593e-05 1 -2.396612e-05 0 
-0.2260724 0.4120007 -0.2039044 -1.750131e-05 1 -1.767849e-05 0 
-0.06614327 0.4120025 -0.3024385 -1.496897e-05 1 -1.51205e-05 0 
-0.1410732 0.4120027 -0.2217896 -1.469495e-05 1 -1.484371e-05 0 
-0.2963746 0.4119971 -0.2614705 -2.2887e-05 1 -2.31187e-05 0 
-0.3416508 0.4119999 -0.1181625 -1.87159e-05 1 -1.890537e-05 0 
-0.1749984 0.4119984 -0.3364132 -2.097195e-05 1 -2.118426e-05 0 
-0.1122634 0.4120009 -0.3131666 -1.735705e-05 1 -1.753277e-05 0 
-0.3261477 0.4119972 -0.2274377 -2.269396e-05 1 -2.29237e-05 0 
-0.06787877 0.4120028 -0.2907181 -1.454535e-05 1 -1.469259e-05 0 
-0.2464238 0.4120018 -0.1492424 -1.603954e-05 1 -1.620191e-05 0 
-0.3030458 0.4120012 -0.1121333 -1.684192e-05 1 -1.701242e-05 0 
-0.2410426 0.4119982 -0.2768929 -2.122022e-05 1 -2.143505e-05 0 
-0.2969908 0.4120016 -0.1047923 -1.627714e-05 1 -1.644192e-05 0 
-0.19101 0.4119999 -0.2698613 -1.882465e-05 1 -1.901522e-05 0 
-0.2955184 0.4120019 -0.0965909 -1.586805e-05 1 -1.602869e-05 0 
-0.0783391 0.412002 -0.3081639 -1.57228e-05 1 -1.588197e-05 0 
-0.2189963 0.4119976 -0.319828 -2.211427e-05 1 -2.233814e-05 0 
-0.345344 0.4119946 -0.2982674 -2.649863e-05 1 -2.676689e-05 0 
-0.2244792 0.4120003 -0.2206146 -1.814223e-05 1 -1.832589e-05 0 
-0.2526241 0.4120024 -0.122975 -1.518701e-05 1 -1.534075e-05 0 
-0.257644 0.4119979 -0.2695517 -2.160537e-05 1 -2.182409e-05 0 
-0.1954508 0.4120018 -0.197724 -1.595565e-05 1 -1.611718e-05 0 
-0.1618846 0.4120007 -0.2695841 -1.759174e-05 1 -1.776983e-05 0 
-0.308647 0.411999 -0.1842209 -2.012985e-05 1 -2.033364e-05 0 
-0.2923912 0.4119951 -0.3330673 -2.575229e-05 1 -2.601299e-05 0 
-0.2004971 0.4119974 -0.3452395 -2.241488e-05 1 -2.264179e-05 0 
-0.1408499 0.4119999 -0.3198894 -1.884035e-05 1 -1.903108e-05 0 
-0.178625 0.4119983 -0.3365196 -2.112852e-05 1 -2.134241e-05 0 
-0.2119046 0.4119998 -0.2498847 -1.885466e-05 1 -1.904554e-05 0 
-0.2693571 0.4119987 -0.2307717 -2.045405e-05 1 -2.066111e-05 0 
-0.07715195 0.412002 -0.3076397 -1.565082e-05 1 -1.580926e-05 0 
-0.1850979 0.4119999 -0.2727079 -1.869733e-05 1 -1.888661e-05 0 
-0.2110242 0.4120025 -0.157768 -1.491638e-05 1 -1.506739e-05 0 
-0.306936 0.4120011 -0.1119451 -1.699706e-05 1 -1.716913e-05 0 
-0.2959093 0.4120024 -0.07761689 -1.508085e-05 1 -1.523352e-05 0 
-0.2466901 0.4120004 -0.1936138 -1.792994e-05 1 -1.811145e-05 0 
-0.2152713 0.4119974 -0.3310793 -2.243461e-05 1 -2.266173e-05 0 
-0.1604906 0.4119991 -0.326263 -1.993378e-05 1 -2.013558e-05 0 
-0.249508 0.4119971 -0.3073153 -2.286362e-05 1 -2.309508e-05 0 
-0.08740488 0.4120007 -0.3449923 -1.766268e-05 1 -1.784149e-05 0 
-0.289681 0.4119967 -0.2809627 -2.34319e-05 1 -2.366911e-05 0 
-0.2989092 0.4119966 -0.2735285 -2.350397e-05 1 -2.374191e-05 0 
-0.2288257 0.4120005 -0.2100765 -1.787816e-05 1 -1.805915e-05 0 
-0.3139907 0.4119993 -0.1675333 -1.964714e-05 1 -1.984604e-05 0 
-0.3288929 0.4119965 -0.250195 -2.377289e-05 1 -2.401355e-05 0 
-0.1117955 0.4120021 -0.2694572 -1.548623e-05 1 -1.5643e-05 0 
-0.2354073 0.4119999 -0.2224035 -1.867619e-05 1 -1.886525e-05 0 
-0.1726466 0.4120011 -0.245634 -1.702863e-05 1 -1.720101e-05 0 
-0.2174174 0.411997 -0.342861 -2.302358e-05 1 -2.325665e-05 0 
-0.2554311 0.4119962 -0.3318905 -2.415279e-05 1 -2.43973e-05 0 
-0.07761809 0.4120013 -0.3314503 -1.66788e-05 1 -1.684765e-05 0 
-0.3137704 0.4119962 -0.2721877 -2.407028e-05 1 -2.431395e-05 0 
-0.2716192 0.4119978 -0.2593723 -2.17602e-05 1 -2.198049e-05 0 
-0.1852843 0.4119992 -0.2970296 -1.973523e-05 1 -1.993502e-05 0 
-0.1587325 0.4120002 -0.2888477 -1.827544e-05 1 -1.846045e-05 0 
-0.1774736 0.4120004 -0.2655483 -1.807443e-05 1 -1.825741e-05 0 
-0.217367 0.4119994 -0.2577102 -1.941512e-05 1 -1.961167e-05 0 
-0.2433277 0.4119983 -0.2710438 -2.106831e-05 1 -2.12816e-05 0 
-0.1805068 0.4120016 -0.2216891 -1.634406e-05 1 -1.650952e-05 0 
-0.3310323 0.4119977 -0.2042775 -2.191787e-05 1 -2.213976e-05 0 
-0.3280301 0.4119948 -0.3070119 -2.614305e-05 1 -2.64077e-05 0 
-0.3274918 0.4119978 -0.2054581 -2.181943e-05 1 -2.204031e-05 0 
-0.3110351 0.4119979 -0.2193729 -2.171876e-05 1 -2.193862e-05 0 
-0.08646787 0.4120008 -0.340864 -1.744855e-05 1 -1.762519e-05 0 
-0.3420321 0.4119992 -0.1437536 -1.981574e-05 1 -2.001634e-05 0 
-0.2035712 0.411999 -0.2853429 -2.0007e-05 1 -2.020954e-05 0 
-0.2724281 0.411999 -0.2186874 -2.007101e-05 1 -2.02742e-05 0 
-0.3465452 0.4120018 -0.04888276 -1.598695e-05 1 -1.614879e-05 0 
-0.1376816 0.4120021 -0.2438904 -1.548877e-05 1 -1.564557e-05 0 
-0.1610732 0.412 -0.2932415 -1.855967e-05 1 -1.874756e-05 0 
-0.3290899 0.4120004 -0.1160348 -1.809914e-05 1 -1.828236e-05 0 
-0.3325308 0.4120005 -0.1072576 -1.787167e-05 1 -1.805259e-05 0 
-0.3428008 0.4120029 -0.01592651 -1.443417e-05 1 -1.45803e-05 0 
-0.3300606 0.4119999 -0.1321213 -1.882114e-05 1 -1.901167e-05 0 
-0.1905076 0.4120005 -0.2474058 -1.785254e-05 1 -1.803327e-05 0 
-0.2517108 0.4119978 -0.2800207 -2.179999e-05 1 -2.202068e-05 0 
-0.2298786 0.4119997 -0.2369497 -1.906045e-05 1 -1.92534e-05 0 
-0.2324116 0.4119993 -0.2489214 -1.967368e-05 1 -1.987285e-05 0 
-0.04946018 0.4120018 -0.3433852 -1.600367e-05 1 -1.616568e-05 0 
-0.2778352 0.4120004 -0.163053 -1.794147e-05 1 -1.81231e-05 0 
-0.08444577 0.4120013 -0.3256932 -1.672124e-05 1 -1.689052e-05 0 
-0.1271646 0.4120021 -0.2553476 -1.553305e-05 1 -1.56903e-05 0 
-0.3056004 0.4119988 -0.1936764 -2.040258e-05 1 -2.060912e-05 0 
-0.3138025 0.4119957 -0.2921179 -2.491571e-05 1 -2.516795e-05 0 
-0.2462797 0.4120027 -0.1171759 -1.46754e-05 1 -1.482397e-05 0 
-0.3164762 0.4119958 -0.2844483 -2.470299e-05 1 -2.495307e-05 0 
-0.2582607 0.4119991 -0.2279512 -1.986934e-05 1 -2.007049e-05 0 
-0.3252292 0.4119994 -0.1525902 -1.948547e-05 1 -1.968274e-05 0 
-0.1134132 0.412 -0.3404924 -1.856257e-05 1 -1.875049e-05 0 
-0.2489358 0.4120017 -0.1501595 -1.61837e-05 1 -1.634753e-05 0 
-0.2128997 0.4120012 -0.2022803 -1.688022e-05 1 -1.705111e-05 0 
-0.3286314 0.4119976 -0.2089558 -2.201534e-05 1 -2.223822e-05 0 
-0.205422 0.4120014 -0.2035094 -1.661875e-05 1 -1.678699e-05 0 
-0.3169782 0.4119955 -0.2951403 -2.517687e-05 1 -2.543174e-05 0 
-0.1292779 0.4120026 -0.2351246 -1.476516e-05 1 -1.491464e-05 0 
-0.09601498 0.4120007 -0.3336772 -1.754446e-05 1 -1.772207e-05 0 
-0.3369029 0.4119975 -0.2059062 -2.223299e-05 1 -2.245807e-05 0 
-0.1246967 0.4120028 -0.2344248 -1.454345e-05 1 -1.469068e-05 0 
-0.2955506 0.4119976 -0.2440662 -2.211534e-05 1 -2.233923e-05 0 
-0.06663255 0.412002 -0.3186759 -1.567717e-05 1 -1.583588e-05 0 
-0.2045411 0.4119999 -0.2548741 -1.875724e-05 1 -1.894713e-05 0 
-0.3316958 0.412002 -0.05795607 -1.574862e-05 1 -1.590805e-05 0 
-0.3026188 0.4120012 -0.1139277 -1.690001e-05 1 -1.70711e-05 0 
-0.2770591 0.4119965 -0.3003898 -2.372547e-05 1 -2.396566e-05 0 
-0.228257 0.4119989 -0.2642765 -2.014981e-05 1 -2.03538e-05 0 
-0.2585459 0.412 -0.1970795 -1.857381e-05 1 -1.876184e-05 0 
-0.1944849 0.411998 -0.3305623 -2.154118e-05 1 -2.175925e-05 0 
-0.3178944 0.4119942 -0.3369808 -2.698733e-05 1 -2.726054e-05 0 
-0.3361974 0.4119971 -0.2211518 -2.28491e-05 1 -2.308041e-05 0 
-0.2212411 0.4120014 -0.185228 -1.650775e-05 1 -1.667487e-05 0 
-0.2307708 0.4120001 -0.2218646 -1.845896e-05 1 -1.864583e-05 0 
-0.3380084 0.4119961 -0.2538645 -2.431049e-05 1 -2.45566e-05 0 
-0.2724912 0.4119966 -0.3002881 -2.352964e-05 1 -2.376784e-05 0 
-0.2647977 0.4119956 -0.3422638 -2.498484e-05 1 -2.523777e-05 0 
-0.0726899 0.4120021 -0.3103772 -1.557968e-05 1 -1.57374e-05 0 
-0.3078741 0.411999 -0.1821472 -2.000962e-05 1 -2.021219e-05 0 
-0.3192011 0.4119982 -0.199587 -2.122315e-05 1 -2.143801e-05 0 
-0.2953639 0.4120019 -0.09569238 -1.582352e-05 1 -1.598371e-05 0 
-0.162927 0.4120003 -0.2830323 -1.820501e-05 1 -1.838931e-05 0 
-0.2405246 0.4119973 -0.3073234 -2.248731e-05 1 -2.271496e-05 0 
-0.2526914 0.4119992 -0.2316857 -1.9794e-05 1 -1.999438e-05 0 
-0.2413625 0.4119992 -0.2435343 -1.982081e-05 1 -2.002147e-05 0 
-0.1933349 0.4120006 -0.2406559 -1.768521e-05 1 -1.786424e-05 0 
-0.1862583 0.4120001 -0.2646452 -1.840451e-05 1 -1.859083e-05 0 
-0.1584137 0.4120022 -0.2212843 -1.54006e-05 1 -1.555651e-05 0 
-0.07912236 0.4120021 -0.301161 -1.545905e-05 1 -1.561555e-05 0 
-0.184835 0.4120001 -0.2677121 -1.847472e-05 1 -1.866175e-05 0 
-0.2222327 0.4119996 -0.2476435 -1.919278e-05 1 -1.938708e-05 0 
-0.190137 0.4119991 -0.2966496 -1.99226e-05 1 -2.012429e-05 0 
-0.2625718 0.4119965 -0.3133514 -2.366701e-05 1 -2.39066e-05 0 
-0.2364344 0.4120018 -0.1555651 -1.588848e-05 1 -1.604933e-05 0 
-0.2696071 0.4120024 -0.1039884 -1.509495e-05 1 -1.524776e-05 0 
-0.29885 0.412002 -0.08911622 -1.569117e-05 1 -1.585002e-05 0 
-0.06304934 0.4120021 -0.3178738 -1.549296e-05 1 -1.564981e-05 0 
-0.2430753 0.4120002 -0.2073684 -1.836092e-05 1 -1.85468e-05 0 
-0.3356184 0.4119955 -0.2779101 -2.522867e-05 1 -2.548408e-05 0 
-0.07621827 0.4120012 -0.3374076 -1.687242e-05 1 -1.704322e-05 0 
-0.3228138 0.4119993 -0.159463 -1.967528e-05 1 -1.987446e-05 0 
-0.2637948 0.4120015 -0.1417662 -1.645123e-05 1 -1.661777e-05 0 
-0.1147401 0.4120028 -0.2441754 -1.453895e-05 1 -1.468614e-05 0 
-0.3331903 0.411997 -0.2262273 -2.293798e-05 1 -2.317019e-05 0 
-0.03436467 0.4120027 -0.3257779 -1.462503e-05 1 -1.477309e-05 0 
-0.0814615 0.4120025 -0.2874633 -1.497699e-05 1 -1.512861e-05 0 
-0.3455984 0.4119967 -0.225646 -2.343361e-05 1 -2.367083e-05 0 
-0.03540685 0.4120028 -0.3228383 -1.454423e-05 1 -1.469147e-05 0 
-0.2727883 0.4120029 -0.08485978 -1.441818e-05 1 -1.456415e-05 0 
-0.1765409 0.4119991 -0.3089265 -1.98725e-05 1 -2.007368e-05 0 
-0.3472138 0.4119998 -0.1179966 -1.894212e-05 1 -1.913388e-05 0 
-0.1914592 0.4120003 -0.2536579 -1.815723e-05 1 -1.834104e-05 0 
-0.2707972 0.4120009 -0.1533972 -1.723743e-05 1 -1.741193e-05 0 
-0.2165377 0.4119992 -0.26825 -1.982673e-05 1 -2.002745e-05 0 
-0.2256252 0.4119991 -0.2616979 -1.993025e-05 1 -2.013202e-05 0 
-0.1163864 0.4120002 -0.3310383 -1.828683e-05 1 -1.847195e-05 0 
-0.3182933 0.4119985 -0.1899962 -2.07789e-05 1 -2.098926e-05 0 
-0.2907243 0.4120005 -0.1479592 -1.784262e-05 1 -1.802325e-05 0 
-0.3075898 0.4119973 -0.2439783 -2.26164e-05 1 -2.284536e-05 0 
-0.09523705 0.412001 -0.3269349 -1.722629e-05 1 -1.740068e-05 0 
-0.2561417 0.4119995 -0.2178318 -1.935192e-05 1 -1.954782e-05 0 
-0.270515 0.4119999 -0.1878156 -1.86833e-05 1 -1.887244e-05 0 
-0.341086 0.4119945 -0.3046432 -2.659013e-05 1 -2.685932e-05 0 
-0.1195901 0.4120008 -0.3083431 -1.745996e-05 1 -1.763671e-05 0 
-0.2278656 0.4120025 -0.1415171 -1.493424e-05 1 -1.508543e-05 0 
-0.2581526 0.412002 -0.1301289 -1.57218e-05 1 -1.588096e-05 0 
-0.2063566 0.4119997 -0.2612105 -1.910172e-05 1 -1.929509e-05 0 
-0.1778229 0.4119997 -0.2873338 -1.901175e-05 1 -1.920421e-05 0 
-0.2531219 0.4119999 -0.2050328 -1.868323e-05 1 -1.887237e-05 0 
-0.2095414 0.4119987 -0.290363 -2.046993e-05 1 -2.067716e-05 0 
-0.1873528 0.4119978 -0.3433475 -2.178363e-05 1 -2.200415e-05 0 
-0.2868508 0.4119957 -0.3171929 -2.484767e-05 1 -2.509921e-05 0 
-0.2701833 0.411998 -0.2538817 -2.146745e-05 1 -2.168478e-05 0 
-0.2595142 0.4119968 -0.3077854 -2.330307e-05 1 -2.353898e-05 0 
-0.2053264 0.4120001 -0.2482049 -1.850771e-05 1 -1.869507e-05 0 
-0.02754763 0.4120025 -0.3408273 -1.497659e-05 1 -1.51282e-05 0 
-0.2032638 0.4120008 -0.2260816 -1.748425e-05 1 -1.766125e-05 0 
-0.3117965 0.4119975 -0.2324436 -2.230426e-05 1 -2.253005e-05 0 
-0.2893091 0.4120023 -0.08784607 -1.523734e-05 1 -1.53916e-05 0 
-0.2626435 0.4119959 -0.3351142 -2.459171e-05 1 -2.484067e-05 0 
-0.1808865 0.4119979 -0.3452344 -2.159243e-05 1 -2.181102e-05 0 
-0.1974128 0.4119977 -0.3380793 -2.198231e-05 1 -2.220484e-05 0 
-0.1375649 0.4120007 -0.2923336 -1.753556e-05 1 -1.771308e-05 0 
-0.06659344 0.4120019 -0.3227186 -1.584675e-05 1 -1.600718e-05 0 
-0.242041 0.411997 -0.3190912 -2.304929e-05 1 -2.328262e-05 0 
-0.2449625 0.4119977 -0.2903736 -2.195552e-05 1 -2.217778e-05 0 
-0.3272298 0.4120023 -0.04924833 -1.519258e-05 1 -1.534638e-05 0 
-0.2696725 0.4119958 -0.3319233 -2.475129e-05 1 -2.500185e-05 0 
-0.2759339 0.4119974 -0.2698251 -2.238381e-05 1 -2.261041e-05 0 
-0.129218 0.412002 -0.2575869 -1.571398e-05 1 -1.587306e-05 0 
-0.2652169 0.4119976 -0.2728206 -2.206133e-05 1 -2.228466e-05 0 
-0.2311302 0.4119976 -0.3058896 -2.20327e-05 1 -2.225574e-05 0 
-0.2295728 0.4120014 -0.1792013 -1.660184e-05 1 -1.676991e-05 0 
-0.337264 0.4119996 -0.1342604 -1.921376e-05 1 -1.940827e-05 0 
-0.2795576 0.4119977 -0.2548638 -2.190209e-05 1 -2.212382e-05 0 
-0.3207533 0.4119969 -0.2416475 -2.30696e-05 1 -2.330315e-05 0 
-0.334265 0.4119943 -0.3185698 -2.689397e-05 1 -2.716623e-05 0 
-0.3173144 0.4120016 -0.08362409 -1.623274e-05 1 -1.639707e-05 0 
-0.2242913 0.4120019 -0.1645284 -1.575896e-05 1 -1.59185e-05 0 
-0.3172673 0.4119954 -0.2977484 -2.529945e-05 1 -2.555557e-05 0 
-0.1722901 0.4119987 -0.3277734 -2.049248e-05 1 -2.069994e-05 0 
-0.04143412 0.4120028 -0.3149984 -1.44649e-05 1 -1.461134e-05 0 
-0.2868732 0.411997 -0.2740591 -2.302179e-05 1 -2.325485e-05 0 
-0.2243785 0.4120021 -0.1583492 -1.550091e-05 1 -1.565784e-05 0 
-0.2111493 0.4120022 -0.1687897 -1.538842e-05 1 -1.554421e-05 0 
-0.1768298 0.4119988 -0.3195882 -2.033615e-05 1 -2.054203e-05 0 
-0.1401088 0.4120027 -0.2233381 -1.47201e-05 1 -1.486912e-05 0 
-0.1760848 0.4120014 -0.2300158 -1.651132e-05 1 -1.667847e-05 0 
-0.1235011 0.4120008 -0.304458 -1.74594e-05 1 -1.763614e-05 0 
-0.2594551 0.4120002 -0.1887559 -1.82594e-05 1 -1.844425e-05 0 
-0.242324 0.4119967 -0.3273316 -2.341015e-05 1 -2.364714e-05 0 
-0.09120919 0.4120006 -0.3421324 -1.770106e-05 1 -1.788026e-05 0 
-0.3171197 0.4119973 -0.2309048 -2.246227e-05 1 -2.268967e-05 0 
-0.2403392 0.4120024 -0.132286 -1.506628e-05 1 -1.52188e-05 0 
-0.1720657 0.4120024 -0.2007348 -1.510268e-05 1 -1.525557e-05 0 
-0.2574841 0.4120022 -0.1235779 -1.541632e-05 1 -1.557239e-05 0 
-0.1632832 0.412002 -0.2226877 -1.56642e-05 1 -1.582278e-05 0 
-0.3213874 0.411999 -0.1681062 -1.998153e-05 1 -2.018382e-05 0 
-0.3217767 0.4119947 -0.3189658 -2.638713e-05 1 -2.665426e-05 0 
-0.21376 0.4120002 -0.2353227 -1.831572e-05 1 -1.850114e-05 0 
-0.2304637 0.4119992 -0.254553 -1.983052e-05 1 -2.003128e-05 0 
-0.1296481 0.4120002 -0.3167232 -1.823658e-05 1 -1.84212e-05 0 
-0.1181506 0.4119999 -0.3397047 -1.872784e-05 1 -1.891743e-05 0 
-0.323154 0.4119966 -0.2518443 -2.360212e-05 1 -2.384105e-05 0 
-0.1053521 0.412001 -0.3144919 -1.71234e-05 1 -1.729675e-05 0 
-0.03538391 0.4120027 -0.3242893 -1.460472e-05 1 -1.475257e-05 0 
-0.3393416 0.4119948 -0.2982283 -2.624531e-05 1 -2.6511e-05 0 
-0.1471149 0.4120021 -0.2377597 -1.562464e-05 1 -1.578281e-05 0 
-0.2189084 0.4120021 -0.1650945 -1.555725e-05 1 -1.571474e-05 0 
-0.2425361 0.4119966 -0.3302217 -2.354145e-05 1 -2.377977e-05 0 
-0.3348828 0.411999 -0.1568254 -2.00696e-05 1 -2.027278e-05 0 
-0.3034267 0.4119989 -0.1900156 -2.01564e-05 1 -2.036045e-05 0 
-0.1457855 0.4120024 -0.2279821 -1.515479e-05 1 -1.530821e-05 0 
-0.2080268 0.4120008 -0.2188983 -1.737972e-05 1 -1.755567e-05 0 
-0.2942858 0.4119969 -0.2686998 -2.31056e-05 1 -2.333951e-05 0 
-0.2750304 0.4119986 -0.2285943 -2.05997e-05 1 -2.080824e-05 0 
-0.03227351 0.4120025 -0.3361205 -1.497539e-05 1 -1.512699e-05 0 
-0.3132709 0.4119957 -0.2924336 -2.490679e-05 1 -2.515894e-05 0 
-0.2432022 0.4119994 -0.232789 -1.944286e-05 1 -1.963969e-05 0 
-0.1261289 0.4120004 -0.3159868 -1.805784e-05 1 -1.824065e-05 0 
-0.2562551 0.4120026 -0.1093603 -1.476264e-05 1 -1.491209e-05 0 
-0.3087243 0.4119962 -0.2775369 -2.408526e-05 1 -2.432908e-05 0 
-0.2031128 0.4120005 -0.2363727 -1.791378e-05 1 -1.809512e-05 0 
-0.1558955 0.4120017 -0.2394571 -1.606468e-05 1 -1.622731e-05 0 
-0.3463365 0.4119944 -0.3023592 -2.671354e-05 1 -2.698397e-05 0 
-0.194111 0.4119992 -0.2903495 -1.98224e-05 1 -2.002307e-05 0 
-0.2303494 0.4120014 -0.1789307 -1.662294e-05 1 -1.679122e-05 0 
-0.1846142 0.4120007 -0.2472679 -1.759961e-05 1 -1.777777e-05 0 
-0.310161 0.4120029 -0.04801182 -1.442455e-05 1 -1.457057e-05 0 
-0.325892 0.4119946 -0.3168988 -2.647213e-05 1 -2.674012e-05 0 
-0.2740557 0.4119998 -0.1894695 -1.89018e-05 1 -1.909315e-05 0 
-0.3306406 0.4120009 -0.09534051 -1.72877e-05 1 -1.746271e-05 0 
-0.184699 0.412 -0.2710046 -1.860846e-05 1 -1.879684e-05 0 
-0.3407833 0.4119946 -0.3011564 -2.642977e-05 1 -2.669733e-05 0 
-0.06758069 0.4120023 -0.3074042 -1.523954e-05 1 -1.539382e-05 0 
-0.2889906 0.4120018 -0.1052826 -1.596247e-05 1 -1.612407e-05 0 
-0.3088464 0.4119974 -0.2381611 -2.242272e-05 1 -2.264971e-05 0 
-0.09999897 0.4120007 -0.3322096 -1.764934e-05 1 -1.782802e-05 0 
-0.3142649 0.4120024 -0.06005529 -1.510668e-05 1 -1.525962e-05 0 
-0.2833172 0.4119959 -0.3148801 -2.460156e-05 1 -2.485061e-05 0 
-0.3075192 0.4119968 -0.2612036 -2.334297e-05 1 -2.357928e-05 0 
-0.3430941 0.4119969 -0.2204592 -2.310893e-05 1 -2.334287e-05 0 
-0.2442011 0.4120026 -0.1236377 -1.486192e-05 1 -1.501237e-05 0 
-0.1130669 0.4120021 -0.2707427 -1.559398e-05 1 -1.575185e-05 0 
-0.2537912 0.4119966 -0.3203311 -2.359446e-05 1 -2.383332e-05 0 
-0.3218804 0.4120011 -0.0963833 -1.696457e-05 1 -1.713631e-05 0 
-0.2991188 0.4119992 -0.1861984 -1.98141e-05 1 -2.001469e-05 0 
-0.125665 0.4119998 -0.3355466 -1.88668e-05 1 -1.90578e-05 0 
-0.2978184 0.4120003 -0.1474735 -1.811949e-05 1 -1.830293e-05 0 
-0.2218651 0.4120007 -0.210231 -1.759286e-05 1 -1.777096e-05 0 
-0.07097036 0.4120021 -0.312896 -1.561426e-05 1 -1.577233e-05 0 
-0.299523 0.4120002 -0.1501458 -1.830414e-05 1 -1.848944e-05 0 
-0.2455695 0.4120003 -0.1999347 -1.815066e-05 1 -1.83344e-05 0 
-0.1321158 0.4119999 -0.3263752 -1.874883e-05 1 -1.893864e-05 0 
-0.3303727 0.4120015 -0.07641995 -1.647513e-05 1 -1.664192e-05 0 
-0.2202779 0.4120005 -0.2171819 -1.782069e-05 1 -1.80011e-05 0 
-0.1355132 0.4120014 -0.2702449 -1.651403e-05 1 -1.668121e-05 0 
-0.276763 0.4119994 -0.2016873 -1.953277e-05 1 -1.973051e-05 0 
-0.2707464 0.4119997 -0.1966609 -1.906762e-05 1 -1.926065e-05 0 
-0.1279089 0.4120008 -0.3008682 -1.749216e-05 1 -1.766924e-05 0 
-0.2507981 0.4119995 -0.2239082 -1.938522e-05 1 -1.958147e-05 0 
-0.3175632 0.4119983 -0.1982486 -2.10978e-05 1 -2.131138e-05 0 
-0.1088602 0.412001 -0.3122156 -1.717408e-05 1 -1.734795e-05 0 
-0.04201929 0.4120021 -0.3401729 -1.555564e-05 1 -1.571311e-05 0 
-0.3101699 0.4120012 -0.1064838 -1.690135e-05 1 -1.707245e-05 0 
-0.2400947 0.4119976 -0.2982861 -2.208653e-05 1 -2.231013e-05 0 
-0.1734654 0.4120005 -0.2641804 -1.784844e-05 1 -1.802913e-05 0 
-0.2849729 0.4119979 -0.2428936 -2.162218e-05 1 -2.184107e-05 0 
-0.2370775 0.4120009 -0.1874886 -1.726748e-05 1 -1.744229e-05 0 
-0.1046499 0.4120026 -0.2595314 -1.476625e-05 1 -1.491574e-05 0 
-0.2606821 0.4119974 -0.2857313 -2.2418e-05 1 -2.264494e-05 0 
-0.2125812 0.4120007 -0.2190316 -1.757632e-05 1 -1.775426e-05 0 
-0.2636711 0.4120005 -0.175658 -1.788144e-05 1 -1.806246e-05 0 
-0.2728192 0.4119965 -0.3049655 -2.374149e-05 1 -2.398184e-05 0 
-0.2572106 0.4119973 -0.2939858 -2.262204e-05 1 -2.285105e-05 0 
-0.1624252 0.4120009 -0.2612826 -1.726282e-05 1 -1.743758e-05 0 
-0.2771883 0.4119998 -0.1869319 -1.892567e-05 1 -1.911727e-05 0 
-0.3400486 0.411999 -0.1514827 -2.005992e-05 1 -2.026299e-05 0 
-0.1370887 0.4120027 -0.2248937 -1.465935e-05 1 -1.480776e-05 0 
-0.3396489 0.4119945 -0.3065874 -2.661222e-05 1 -2.688163e-05 0 
-0.3231196 0.4119948 -0.3122314 -2.615821e-05 1 -2.642303e-05 0 
-0.2848502 0.411996 -0.3081386 -2.438032e-05 1 -2.462713e-05 0 
-0.1704586 0.4120023 -0.2049624 -1.521434e-05 1 -1.536837e-05 0 
-0.06085596 0.4120022 -0.3175897 -1.538897e-05 1 -1.554476e-05 0 
-0.3367339 0.4120007 -0.09623522 -1.758107e-05 1 -1.775906e-05 0 
-0.1294846 0.412001 -0.2902814 -1.710985e-05 1 -1.728306e-05 0 
-0.3107245 0.4120009 -0.1165654 -1.735158e-05 1 -1.752724e-05 0 
-0.3203816 0.4119995 -0.154459 -1.936137e-05 1 -1.955738e-05 0 
-0.1106792 0.4120015 -0.2923037 -1.640704e-05 1 -1.657313e-05 0 
-0.283237 0.4120013 -0.1298404 -1.676132e-05 1 -1.6931e-05 0 
-0.3201191 0.4120023 -0.05784128 -1.525837e-05 1 -1.541284e-05 0 
-0.2885244 0.4119985 -0.2216519 -2.087145e-05 1 -2.108274e-05 0 
-0.1901487 0.4120012 -0.2253534 -1.690352e-05 1 -1.707464e-05 0 
-0.1603353 0.4120017 -0.2354201 -1.607985e-05 1 -1.624264e-05 0 
-0.1878174 0.4120005 -0.2516878 -1.79211e-05 1 -1.810252e-05 0 
-0.2650203 0.4120022 -0.1142086 -1.533548e-05 1 -1.549073e-05 0 
-0.1848417 0.4120011 -0.2329061 -1.700088e-05 1 -1.717299e-05 0 
-0.1678747 0.4120008 -0.2612826 -1.749131e-05 1 -1.766838e-05 0 
-0.1474347 0.4120017 -0.2498118 -1.614848e-05 1 -1.631196e-05 0 
-0.3426268 0.412 -0.1140339 -1.858197e-05 1 -1.877008e-05 0 
-0.1325307 0.4120001 -0.3204336 -1.851459e-05 1 -1.870203e-05 0 
-0.2162464 0.4120011 -0.2029653 -1.704955e-05 1 -1.722215e-05 0 
-0.2900281 0.4119975 -0.253577 -2.22866e-05 1 -2.251222e-05 0 
-0.3109548 0.4119979 -0.2195896 -2.172457e-05 1 -2.194449e-05 0 
-0.1398788 0.412001 -0.2800952 -1.711425e-05 1 -1.728751e-05 0 
-0.2314167 0.4119974 -0.3144879 -2.240887e-05 1 -2.263572e-05 0 
-0.209759 0.4120026 -0.15763 -1.485749e-05 1 -1.50079e-05 0 
-0.184166 0.4119987 -0.3175606 -2.055788e-05 1 -2.076599e-05 0 
-0.3274436 0.4119992 -0.1582865 -1.981957e-05 1 -2.002021e-05 0 
-0.3231337 0.4120027 -0.04147179 -1.469148e-05 1 -1.484021e-05 0 
-0.3224775 0.411994 -0.3403337 -2.73215e-05 1 -2.759809e-05 0 
-0.318481 0.4119948 -0.3193596 -2.626563e-05 1 -2.653153e-05 0 
-0.1920646 0.4120025 -0.1784455 -1.499719e-05 1 -1.514901e-05 0 
-0.1251264 0.412002 -0.2608858 -1.568215e-05 1 -1.584091e-05 0 
-0.0873032 0.412002 -0.2975833 -1.565053e-05 1 -1.580896e-05 0 
-0.1746245 0.4120029 -0.1810059 -1.437439e-05 1 -1.451991e-05 0 
-0.1584649 0.4119993 -0.3224707 -1.968824e-05 1 -1.988755e-05 0 
-0.157947 0.4120008 -0.2697681 -1.743444e-05 1 -1.761094e-05 0 
-0.1786927 0.412002 -0.2078265 -1.568089e-05 1 -1.583963e-05 0 
-0.3113458 0.4119992 -0.1720943 -1.972941e-05 1 -1.992914e-05 0 
-0.3258633 0.4119955 -0.2850484 -2.512199e-05 1 -2.537631e-05 0 
-0.208579 0.4120014 -0.1996717 -1.658858e-05 1 -1.675652e-05 0 
-0.2104892 0.4119996 -0.2606974 -1.925326e-05 1 -1.944817e-05 0 
-0.32206 0.4119971 -0.2363865 -2.290157e-05 1 -2.313341e-05 0 
-0.1074164 0.4120016 -0.2934301 -1.631794e-05 1 -1.648313e-05 0 
-0.06754997 0.4120016 -0.3319229 -1.627668e-05 1 -1.644146e-05 0 
-0.2093561 0.4120017 -0.1873274 -1.609835e-05 1 -1.626133e-05 0 
-0.3180969 0.4119975 -0.2251663 -2.22602e-05 1 -2.248556e-05 0 
-0.1671354 0.4119995 -0.3053545 -1.932686e-05 1 -1.952252e-05 0 
-0.3099345 0.4119962 -0.275831 -2.406375e-05 1 -2.430735e-05 0 
-0.3294925 0.4119988 -0.1673263 -2.028833e-05 1 -2.049372e-05 0 
-0.2190589 0.4120023 -0.1569454 -1.521842e-05 1 -1.537248e-05 0 
-0.2791615 0.4120013 -0.1318698 -1.667639e-05 1 -1.684521e-05 0 
-0.2369142 0.4120024 -0.135454 -1.505684e-05 1 -1.520927e-05 0 
-0.1633669 0.4120024 -0.2113388 -1.518706e-05 1 -1.534081e-05 0 
-0.3099719 0.4119998 -0.155223 -1.895727e-05 1 -1.914918e-05 0 
-0.3042448 0.4120027 -0.05820477 -1.460819e-05 1 -1.475607e-05 0 
-0.2133324 0.4120013 -0.1992807 -1.677132e-05 1 -1.694111e-05 0 
-0.1238898 0.4120029 -0.232512 -1.44286e-05 1 -1.457467e-05 0 
-0.3337888 0.4119989 -0.1617265 -2.023131e-05 1 -2.043612e-05 0 
-0.1091525 0.4120014 -0.2963276 -1.651344e-05 1 -1.668062e-05 0 
-0.2888131 0.4119996 -0.1796106 -1.9103e-05 1 -1.929639e-05 0 
-0.1125526 0.412002 -0.27267 -1.565404e-05 1 -1.581252e-05 0 
-0.3208688 0.4120019 -0.07114044 -1.585305e-05 1 -1.601354e-05 0 
-0.2605906 0.4119969 -0.30231 -2.311631e-05 1 -2.335032e-05 0 
-0.3455607 0.4119959 -0.2522742 -2.455979e-05 1 -2.480842e-05 0 
-0.2987336 0.4119948 -0.335039 -2.610171e-05 1 -2.636595e-05 0 
-0.2783879 0.4119957 -0.3254583 -2.48429e-05 1 -2.509439e-05 0 
-0.09496899 0.4120022 -0.2851875 -1.544695e-05 1 -1.560332e-05 0 
-0.1229583 0.4120005 -0.3158515 -1.791918e-05 1 -1.810058e-05 0 
-0.2592476 0.4119984 -0.2529277 -2.096854e-05 1 -2.118081e-05 0 
-0.2005586 0.4119978 -0.331401 -2.183136e-05 1 -2.205237e-05 0 
-0.2048273 0.4120024 -0.1678646 -1.508417e-05 1 -1.523688e-05 0 
-0.2076949 0.4119978 -0.3226043 -2.175801e-05 1 -2.197828e-05 0 
-0.3054634 0.4119975 -0.2375973 -2.225699e-05 1 -2.248231e-05 0 
-0.2664826 0.4120011 -0.1516233 -1.69814e-05 1 -1.715331e-05 0 
-0.2123365 0.412001 -0.2100358 -1.718507e-05 1 -1.735905e-05 0 
-0.152538 0.4119994 -0.3222236 -1.942927e-05 1 -1.962596e-05 0 
-0.2171007 0.412001 -0.202887 -1.708206e-05 1 -1.725499e-05 0 
-0.2394567 0.4119988 -0.2570461 -2.031317e-05 1 -2.051881e-05 0 
-0.3133496 0.4120009 -0.1124815 -1.728869e-05 1 -1.746371e-05 0 
-0.175822 0.4119987 -0.3245438 -2.050378e-05 1 -2.071136e-05 0 
-0.3108774 0.4119997 -0.1566226 -1.905452e-05 1 -1.924741e-05 0 
-0.2032493 0.4120021 -0.1804292 -1.555015e-05 1 -1.570758e-05 0 
-0.120965 0.4120002 -0.3263331 -1.827952e-05 1 -1.846457e-05 0 
-0.1495804 0.4119989 -0.344029 -2.022877e-05 1 -2.043356e-05 0 
-0.2164489 0.4119974 -0.3281019 -2.235789e-05 1 -2.258423e-05 0 
-0.2076558 0.4120017 -0.1891422 -1.610392e-05 1 -1.626695e-05 0 
-0.3253531 0.412001 -0.09841236 -1.719611e-05 1 -1.737019e-05 0 
-0.3337412 0.4119973 -0.2143203 -2.245679e-05 1 -2.268413e-05 0 
-0.1122869 0.4120006 -0.3222126 -1.774116e-05 1 -1.792076e-05 0 
-0.09378937 0.4120012 -0.3190109 -1.682999e-05 1 -1.700037e-05 0 
-0.3242967 0.4119961 -0.2664245 -2.426753e-05 1 -2.451321e-05 0 
-0.1612156 0.4120008 -0.2666088 -1.743768e-05 1 -1.761421e-05 0 
-0.2749943 0.4120027 -0.08837675 -1.465963e-05 1 -1.480803e-05 0 
-0.3047992 0.4119953 -0.3152545 -2.551812e-05 1 -2.577645e-05 0 
-0.1754454 0.4120013 -0.2343109 -1.666641e-05 1 -1.683513e-05 0 
-0.1624844 0.4120004 -0.2775457 -1.795408e-05 1 -1.813584e-05 0 
-0.1568106 0.4120021 -0.2274849 -1.5596e-05 1 -1.575388e-05 0 
-0.3337045 0.411996 -0.2604908 -2.441068e-05 1 -2.46578e-05 0 
-0.2527526 0.4119978 -0.2785856 -2.178289e-05 1 -2.200341e-05 0 
-0.1851859 0.4120004 -0.2570434 -1.803759e-05 1 -1.822019e-05 0 
-0.2828811 0.4119969 -0.2800366 -2.310757e-05 1 -2.33415e-05 0 
-0.3017355 0.4119989 -0.1923939 -2.018621e-05 1 -2.039057e-05 0 
-0.2771979 0.4120016 -0.1255826 -1.632778e-05 1 -1.649308e-05 0 
-0.1595687 0.4120019 -0.2306889 -1.584733e-05 1 -1.600777e-05 0 
-0.2550438 0.4119992 -0.2289188 -1.977545e-05 1 -1.997564e-05 0 
-0.1588457 0.4119995 -0.3149967 -1.938766e-05 1 -1.958393e-05 0 
-0.2759075 0.4119962 -0.3108307 -2.411938e-05 1 -2.436355e-05 0 
-0.2779436 0.4119963 -0.3069094 -2.403868e-05 1 -2.428203e-05 0 
-0.3460608 0.4120008 -0.08189318 -1.736471e-05 1 -1.75405e-05 0 
-0.1755979 0.4119989 -0.3175657 -2.019885e-05 1 -2.040333e-05 0 
-0.07372367 0.4120029 -0.2820222 -1.442212e-05 1 -1.456812e-05 0 
-0.3476358 0.4119969 -0.2170751 -2.315603e-05 1 -2.339045e-05 0 
-0.2780566 0.411999 -0.2146923 -2.01378e-05 1 -2.034166e-05 0 
-0.202182 0.4120024 -0.1692021 -1.502991e-05 1 -1.518206e-05 0 
-0.2773674 0.4119969 -0.2848434 -2.307997e-05 1 -2.331362e-05 0 
-0.1197587 0.4120004 -0.3196802 -1.794718e-05 1 -1.812887e-05 0 
-0.1748476 0.4119986 -0.3296657 -2.067985e-05 1 -2.088921e-05 0 
-0.2286506 0.411999 -0.2616985 -2.005713e-05 1 -2.026018e-05 0 
-0.3113265 0.4120007 -0.1226133 -1.763297e-05 1 -1.781147e-05 0 
-0.3180152 0.4119979 -0.2092288 -2.158179e-05 1 -2.180027e-05 0 
-0.1168587 0.4120017 -0.2809966 -1.618724e-05 1 -1.635111e-05 0 
-0.1385711 0.4120005 -0.2998841 -1.789753e-05 1 -1.807872e-05 0 
-0.339394 0.4119984 -0.1717869 -2.08924e-05 1 -2.110391e-05 0 
-0.1927409 0.4120017 -0.2028837 -1.606056e-05 1 -1.622315e-05 0 
-0.3287642 0.4119993 -0.1519767 -1.960771e-05 1 -1.98062e-05 0 
-0.3282993 0.4119951 -0.297554 -2.575376e-05 1 -2.601448e-05 0 
-0.2335552 0.4119981 -0.2874892 -2.135507e-05 1 -2.157126e-05 0 
-0.1997011 0.4120003 -0.2453214 -1.814973e-05 1 -1.833347e-05 0 
-0.3273335 0.4120017 -0.07243543 -1.617895e-05 1 -1.634274e-05 0 
-0.3350821 0.4119956 -0.2717931 -2.494712e-05 1 -2.519967e-05 0 
-0.2952552 0.4119998 -0.1671382 -1.884487e-05 1 -1.903565e-05 0 
-0.3453559 0.4119954 -0.2688581 -2.525358e-05 1 -2.550923e-05 0 
-0.1744242 0.4120004 -0.2682715 -1.806191e-05 1 -1.824476e-05 0 
-0.3473248 0.4119996 -0.1244903 -1.92218e-05 1 -1.941639e-05 0 
-0.2863315 0.4119975 -0.2577218 -2.230715e-05 1 -2.253297e-05 0 
-0.2180319 0.4120013 -0.1917377 -1.66489e-05 1 -1.681744e-05 0 
-0.2493882 0.4120001 -0.2041453 -1.84891e-05 1 -1.867627e-05 0 
-0.2791288 0.4120017 -0.1190919 -1.613384e-05 1 -1.629717e-05 0 
-0.1646026 0.4120028 -0.1941438 -1.451062e-05 1 -1.465752e-05 0 
-0.3282735 0.4119946 -0.3140495 -2.645131e-05 1 -2.671909e-05 0 
-0.1594898 0.411999 -0.3295792 -2.003227e-05 1 -2.023507e-05 0 
-0.2495651 0.4119981 -0.271955 -2.136842e-05 1 -2.158474e-05 0 
-0.1694845 0.412002 -0.2159301 -1.563802e-05 1 -1.579633e-05 0 
-0.3063837 0.412002 -0.08252776 -1.5728e-05 1 -1.588723e-05 0 
-0.3404707 0.411994 -0.3237291 -2.737267e-05 1 -2.764978e-05 0 
-0.3272794 0.4120024 -0.04510548 -1.501919e-05 1 -1.517124e-05 0 
-0.1171727 0.4120011 -0.3007696 -1.703784e-05 1 -1.721032e-05 0 
-0.2916938 0.4119984 -0.220581 -2.095898e-05 1 -2.117116e-05 0 
-0.3279029 0.4120013 -0.08328169 -1.666219e-05 1 -1.683087e-05 0 
-0.3055028 0.4119964 -0.2768319 -2.392033e-05 1 -2.416248e-05 0 
-0.173765 0.4120015 -0.2297678 -1.640354e-05 1 -1.65696e-05 0 
-0.3439381 0.4119999 -0.1151928 -1.868603e-05 1 -1.88752e-05 0 
-0.3376715 0.4119954 -0.2793694 -2.537656e-05 1 -2.563346e-05 0 
-0.3388354 0.4120004 -0.1046389 -1.80251e-05 1 -1.820757e-05 0 
-0.3300348 0.4119971 -0.2257384 -2.278497e-05 1 -2.301563e-05 0 
-0.1253266 0.4120027 -0.2382068 -1.473003e-05 1 -1.487915e-05 0 
-0.3411892 0.4119979 -0.1884147 -2.16719e-05 1 -2.189129e-05 0 
-0.3049447 0.4119985 -0.2018623 -2.072178e-05 1 -2.093155e-05 0 
-0.2937963 0.4119993 -0.1884014 -1.968425e-05 1 -1.988352e-05 0 
-0.1758207 0.4119989 -0.316708 -2.017186e-05 1 -2.037607e-05 0 
-0.2854337 0.4119955 -0.3262833 -2.517325e-05 1 -2.542809e-05 0 
-0.1371759 0.4120018 -0.2538917 -1.589114e-05 1 -1.605202e-05 0 
-0.3335534 0.4120021 -0.05308591 -1.562024e-05 1 -1.577837e-05 0 
-0.0383749 0.412002 -0.346302 -1.566242e-05 1 -1.582098e-05 0 
-0.3455481 0.4120005 -0.09338658 -1.782999e-05 1 -1.801049e-05 0 
-0.302249 0.4119956 -0.307093 -2.506553e-05 1 -2.531928e-05 0 
-0.3079339 0.4119962 -0.2794194 -2.413184e-05 1 -2.437614e-05 0 
-0.3364583 0.4119987 -0.1664664 -2.054398e-05 1 -2.075195e-05 0 
-0.07945142 0.4120015 -0.3234072 -1.641502e-05 1 -1.65812e-05 0 
-0.2210772 0.4120013 -0.1884813 -1.663867e-05 1 -1.680711e-05 0 
-0.3456515 0.412001 -0.07597163 -1.709676e-05 1 -1.726984e-05 0 
-0.2535993 0.4119976 -0.2838552 -2.204157e-05 1 -2.226471e-05 0 
-0.1946826 0.4119991 -0.2917842 -1.990713e-05 1 -2.010866e-05 0 
-0.272418 0.4120004 -0.1717767 -1.80838e-05 1 -1.826687e-05 0 
-0.2537317 0.4119961 -0.3359041 -2.425152e-05 1 -2.449703e-05 0 
-0.2914186 0.4119977 -0.2438967 -2.193492e-05 1 -2.215697e-05 0 
-0.2925639 0.4119964 -0.2885296 -2.387325e-05 1 -2.411493e-05 0 
-0.2208654 0.411999 -0.2691745 -2.004734e-05 1 -2.025029e-05 0 
-0.3223312 0.412001 -0.1006539 -1.716434e-05 1 -1.73381e-05 0 
-0.178413 0.4119996 -0.2908393 -1.918496e-05 1 -1.937917e-05 0 
-0.293421 0.4119999 -0.1662886 -1.873198e-05 1 -1.892162e-05 0 
-0.1831876 0.4120018 -0.209561 -1.594281e-05 1 -1.61042e-05 0 
-0.25677 0.4119997 -0.2111488 -1.909522e-05 1 -1.928853e-05 0 
-0.2923116 0.4120002 -0.1564714 -1.826969e-05 1 -1.845464e-05 0 
-0.259984 0.4120019 -0.1308643 -1.582973e-05 1 -1.598998e-05 0 
-0.3064723 0.4119978 -0.2256282 -2.179237e-05 1 -2.201298e-05 0 
-0.3085451 0.4119969 -0.2557434 -2.315473e-05 1 -2.338914e-05 0 
-0.17359 0.4120001 -0.2783547 -1.845398e-05 1 -1.86408e-05 0 
-0.2045273 0.4120024 -0.1666632 -1.502071e-05 1 -1.517277e-05 0 
-0.2877457 0.4119953 -0.3297433 -2.541673e-05 1 -2.567404e-05 0 
-0.2722065 0.4119971 -0.2830452 -2.278742e-05 1 -2.301811e-05 0 
-0.2530171 0.4120028 -0.1064586 -1.450398e-05 1 -1.465081e-05 0 
-0.227358 0.4120023 -0.1496832 -1.525882e-05 1 -1.541329e-05 0 
-0.3113128 0.4119992 -0.1728251 -1.975899e-05 1 -1.995901e-05 0 
-0.2689821 0.4119992 -0.2156219 -1.979669e-05 1 -1.99971e-05 0 
-0.2175759 0.4119976 -0.3221277 -2.215211e-05 1 -2.237637e-05 0 
-0.1902853 0.4119978 -0.3417082 -2.183716e-05 1 -2.205823e-05 0 
-0.2787048 0.412001 -0.1434622 -1.71482e-05 1 -1.73218e-05 0 
-0.1060007 0.4120011 -0.3099623 -1.695876e-05 1 -1.713044e-05 0 
-0.1861853 0.4119981 -0.3347713 -2.137146e-05 1 -2.158781e-05 0 
-0.2442869 0.4119987 -0.2558374 -2.046449e-05 1 -2.067166e-05 0 
-0.1188445 0.4119998 -0.341961 -1.88525e-05 1 -1.904335e-05 0 
-0.1129097 0.4120011 -0.3031908 -1.696165e-05 1 -1.713336e-05 0 
-0.198245 0.4120005 -0.239629 -1.784759e-05 1 -1.802827e-05 0 
-0.2832191 0.4120002 -0.1665097 -1.83136e-05 1 -1.849899e-05 0 
-0.2917611 0.412002 -0.09467226 -1.562926e-05 1 -1.578748e-05 0 
-0.3060103 0.4119946 -0.3379806 -2.65314e-05 1 -2.679999e-05 0 
-0.1120148 0.4120021 -0.2723215 -1.561674e-05 1 -1.577483e-05 0 
-0.1911703 0.4120008 -0.2381712 -1.748922e-05 1 -1.766627e-05 0 
-0.2155857 0.4120022 -0.163953 -1.536959e-05 1 -1.552518e-05 0 
-0.3090305 0.4119966 -0.2660309 -2.361079e-05 1 -2.384981e-05 0 
-0.2819325 0.412001 -0.1408887 -1.717455e-05 1 -1.734841e-05 0 
-0.2275814 0.4119975 -0.3145706 -2.225156e-05 1 -2.247683e-05 0 
-0.2701222 0.4119969 -0.2920336 -2.308072e-05 1 -2.331437e-05 0 
-0.3100319 0.4119963 -0.2731895 -2.395596e-05 1 -2.419847e-05 0 
-0.2847278 0.412001 -0.1369457 -1.712475e-05 1 -1.729811e-05 0 
-0.09789015 0.4120011 -0.3181306 -1.696464e-05 1 -1.713639e-05 0 
-0.2464084 0.4119967 -0.3231121 -2.34027e-05 1 -2.363961e-05 0 
-0.3325869 0.4120007 -0.099934 -1.756385e-05 1 -1.774166e-05 0 
-0.2293944 0.4119966 -0.3443158 -2.358736e-05 1 -2.382615e-05 0 
-0.2465347 0.4120004 -0.1971803 -1.807447e-05 1 -1.825745e-05 0 
-0.09593654 0.4120012 -0.3183916 -1.689379e-05 1 -1.706481e-05 0 
-0.2984332 0.4120008 -0.1315461 -1.74707e-05 1 -1.764757e-05 0 
-0.1078017 0.4120003 -0.3369645 -1.817788e-05 1 -1.83619e-05 0 
-0.1643592 0.4119999 -0.2963662 -1.882978e-05 1 -1.902041e-05 0 
-0.3010206 0.4119984 -0.2096424 -2.088676e-05 1 -2.10982e-05 0 
-0.2958896 0.4120027 -0.06709685 -1.463447e-05 1 -1.478262e-05 0 
-0.3449306 0.4119949 -0.2869221 -2.60008e-05 1 -2.626402e-05 0 
-0.2325636 0.4120002 -0.2151207 -1.824851e-05 1 -1.843325e-05 0 
-0.2646486 0.4120013 -0.1465485 -1.668957e-05 1 -1.685853e-05 0 
-0.1707835 0.4119986 -0.3314334 -2.058432e-05 1 -2.079271e-05 0 
-0.2516548 0.4120012 -0.1631825 -1.684926e-05 1 -1.701983e-05 0 
-0.2859984 0.4120019 -0.1056421 -1.585224e-05 1 -1.601272e-05 0 
-0.3050602 0.4120018 -0.08982243 -1.598146e-05 1 -1.614325e-05 0 
-0.1640581 0.412001 -0.2575072 -1.717139e-05 1 -1.734522e-05 0 
-0.2379324 0.4119979 -0.2891245 -2.160786e-05 1 -2.18266e-05 0 
-0.2768933 0.4119955 -0.3336294 -2.51263e-05 1 -2.538066e-05 0 
-0.1790005 0.4120006 -0.2544964 -1.767038e-05 1 -1.784926e-05 0 
-0.3418055 0.411999 -0.1494825 -2.004887e-05 1 -2.025183e-05 0 
-0.306035 0.4120002 -0.1421595 -1.823893e-05 1 -1.842357e-05 0 
-0.3130054 0.4119974 -0.2335511 -2.240184e-05 1 -2.262863e-05 0 
-0.2300462 0.4119979 -0.2994283 -2.171359e-05 1 -2.193341e-05 0 
-0.2278997 0.4120013 -0.1840663 -1.673773e-05 1 -1.690718e-05 0 
-0.2923337 0.4119996 -0.1784694 -1.920228e-05 1 -1.939667e-05 0 
-0.346861 0.4119973 -0.2050428 -2.261394e-05 1 -2.284288e-05 0 
-0.1205501 0.4120017 -0.2752887 -1.610027e-05 1 -1.626326e-05 0 
-0.30009 0.4119961 -0.2907861 -2.428437e-05 1 -2.453022e-05 0 
-0.1648917 0.4120008 -0.2639613 -1.747969e-05 1 -1.765664e-05 0 
-0.232677 0.4119983 -0.2811631 -2.105032e-05 1 -2.126343e-05 0 
-0.1290767 0.4120002 -0.3172408 -1.823455e-05 1 -1.841914e-05 0 
-0.2201376 0.411998 -0.3044099 -2.150913e-05 1 -2.172688e-05 0 
-0.3286007 0.4120019 -0.06134693 -1.576246e-05 1 -1.592203e-05 0 
-0.1946086 0.4120027 -0.1675076 -1.464061e-05 1 -1.478882e-05 0 
-0.2232864 0.4119976 -0.3137418 -2.203638e-05 1 -2.225947e-05 0 
-0.262587 0.4119989 -0.2322134 -2.023125e-05 1 -2.043606e-05 0 
-0.2693943 0.4119967 -0.3003792 -2.340365e-05 1 -2.364058e-05 0 
-0.1470351 0.412001 -0.2742917 -1.716851e-05 1 -1.734231e-05 0 
-0.3068481 0.4119969 -0.25662 -2.312071e-05 1 -2.335477e-05 0 
-0.2882091 0.4120003 -0.1573465 -1.813474e-05 1 -1.831832e-05 0 
-0.286585 0.4119978 -0.2452575 -2.178989e-05 1 -2.201048e-05 0 
-0.3159281 0.4119973 -0.2358009 -2.261968e-05 1 -2.284867e-05 0 
-0.1846698 0.4120005 -0.2519169 -1.779883e-05 1 -1.797901e-05 0 
-0.2339662 0.4119969 -0.3298992 -2.316847e-05 1 -2.340302e-05 0 
-0.3350379 0.4120016 -0.06837078 -1.632983e-05 1 -1.649515e-05 0 
-0.2173784 0.4119972 -0.334438 -2.26652e-05 1 -2.289465e-05 0 
-0.2247886 0.4120018 -0.1707639 -1.60439e-05 1 -1.620632e-05 0 
-0.2377476 0.4119992 -0.2465192 -1.979567e-05 1 -1.999607e-05 0 
-0.2406843 0.4120028 -0.1196447 -1.454536e-05 1 -1.469261e-05 0 
-0.2816984 0.4119982 -0.2378335 -2.127057e-05 1 -2.148591e-05 0 
-0.3236828 0.4120027 -0.03857924 -1.459199e-05 1 -1.473971e-05 0 
-0.3330444 0.4119956 -0.2764542 -2.505909e-05 1 -2.531278e-05 0 
-0.1914184 0.4120026 -0.1743622 -1.479715e-05 1 -1.494695e-05 0 
-0.1475404 0.4120012 -0.2676411 -1.690802e-05 1 -1.707919e-05 0 
-0.1775345 0.4120013 -0.2348255 -1.67758e-05 1 -1.694563e-05 0 
-0.1695052 0.411999 -0.3194417 -2.002285e-05 1 -2.022555e-05 0 
-0.04153681 0.4120022 -0.3354406 -1.533498e-05 1 -1.549023e-05 0 
-0.2995063 0.4119945 -0.3463888 -2.661481e-05 1 -2.688424e-05 0 
-0.303688 0.4119986 -0.2017839 -2.066577e-05 1 -2.087498e-05 0 
-0.2513941 0.4119996 -0.2167853 -1.910854e-05 1 -1.930198e-05 0 
-0.1237285 0.4120015 -0.2795162 -1.641258e-05 1 -1.657874e-05 0 
-0.1584035 0.4119996 -0.3117661 -1.92323e-05 1 -1.942699e-05 0 
-0.03745906 0.4120024 -0.3332335 -1.507054e-05 1 -1.52231e-05 0 
-0.3171252 0.4120019 -0.07558966 -1.588453e-05 1 -1.604534e-05 0 
-0.233663 0.4119983 -0.2794503 -2.101912e-05 1 -2.123191e-05 0 
-0.2466649 0.4120001 -0.2045606 -1.83925e-05 1 -1.85787e-05 0 
-0.2636174 0.4119973 -0.2837129 -2.245558e-05 1 -2.268291e-05 0 
-0.2415852 0.4120004 -0.2008369 -1.802182e-05 1 -1.820426e-05 0 
-0.1980409 0.4119985 -0.3111978 -2.087014e-05 1 -2.108142e-05 0 
-0.1482125 0.4120009 -0.2753937 -1.726455e-05 1 -1.743933e-05 0 
-0.3447746 0.4120009 -0.08133066 -1.728696e-05 1 -1.746196e-05 0 
-0.1038521 0.4120016 -0.2974351 -1.633811e-05 1 -1.650351e-05 0 
-0.2149019 0.4120008 -0.2130762 -1.742141e-05 1 -1.759777e-05 0 
